-1283.000000 -6098.000000 590.000000
-1283.000000 -6098.000000 592.000000
-1283.000000 -6098.000000 594.000000
-1283.000000 -6098.000000 596.000000
-1283.000000 -6098.000000 598.000000
-1283.000000 -6098.000000 600.000000
-1283.000000 -6098.000000 602.000000
-1283.000000 -6098.000000 604.000000
-1283.000000 -6098.000000 606.000000
-1283.000000 -6098.000000 608.000000
-1283.000000 -6098.000000 610.000000
-1283.000000 -6098.000000 612.000000
-1283.000000 -6098.000000 614.000000
-1283.000000 -6098.000000 616.000000
-1283.000000 -6098.000000 618.000000
-1283.000000 -6098.000000 620.000000
-1283.000000 -6098.000000 622.000000
-1283.000000 -6098.000000 624.000000
-1283.000000 -6098.000000 626.000000
-1283.000000 -6098.000000 628.000000
-1283.000000 -6098.000000 630.000000
-1283.000000 -6098.000000 632.000000
-1283.000000 -6098.000000 634.000000
-1283.000000 -6098.000000 636.000000
-1283.000000 -6098.000000 638.000000
-1283.000000 -6098.000000 640.000000
-1283.000000 -6098.000000 642.000000
-1283.000000 -6098.000000 644.000000
-1283.000000 -6098.000000 646.000000
-1283.000000 -6098.000000 648.000000
-1283.000000 -6098.000000 650.000000
-1283.000000 -6098.000000 652.000000
-1283.000000 -6098.000000 654.000000
-1283.000000 -6098.000000 656.000000
-1283.000000 -6098.000000 658.000000
-1283.000000 -6098.000000 660.000000
-1283.000000 -6098.000000 662.000000
-1283.000000 -6098.000000 664.000000
-1283.000000 -6098.000000 666.000000
-1283.000000 -6098.000000 668.000000
-1283.000000 -6098.000000 670.000000
-1283.000000 -6098.000000 672.000000
-1283.000000 -6098.000000 674.000000
-1283.000000 -6098.000000 676.000000
-1283.000000 -6098.000000 678.000000
-1283.000000 -6098.000000 680.000000
-1283.000000 -6098.000000 682.000000
-1283.000000 -6098.000000 684.000000
-1283.000000 -6098.000000 686.000000
-1283.000000 -6098.000000 688.000000
-1283.000000 -6098.000000 690.000000
-1283.000000 -6098.000000 692.000000
-1283.000000 -6098.000000 694.000000
-1283.000000 -6098.000000 696.000000
-1283.000000 -6098.000000 698.000000
-1283.000000 -6098.000000 700.000000
-1283.000000 -6098.000000 702.000000
-1283.000000 -6098.000000 704.000000
-1283.000000 -6098.000000 706.000000
-1283.000000 -6098.000000 708.000000
-1283.000000 -6098.000000 710.000000
-1283.000000 -6098.000000 712.000000
-1283.000000 -6098.000000 714.000000
-1283.000000 -6098.000000 716.000000
-1283.000000 -6098.000000 718.000000
-1283.000000 -6098.000000 720.000000
-1283.000000 -6098.000000 722.000000
-1283.000000 -6098.000000 724.000000
-1283.000000 -6098.000000 726.000000
-1283.000000 -6098.000000 728.000000
-1283.000000 -6098.000000 730.000000
-1283.000000 -6098.000000 732.000000
-1283.000000 -6098.000000 734.000000
-1283.000000 -6098.000000 736.000000
-1283.000000 -6098.000000 738.000000
-1283.000000 -6098.000000 740.000000
-1283.000000 -6098.000000 742.000000
-1283.000000 -6098.000000 744.000000
-1283.000000 -6098.000000 746.000000
-1283.000000 -6098.000000 748.000000
-1283.000000 -6098.000000 750.000000
-1283.000000 -6098.000000 752.000000
-1283.000000 -6098.000000 754.000000
-1283.000000 -6098.000000 756.000000
-1283.000000 -6098.000000 758.000000
-1283.000000 -6098.000000 760.000000
-1283.000000 -6098.000000 762.000000
-1283.000000 -6098.000000 764.000000
-1283.000000 -6098.000000 766.000000
-1283.000000 -6098.000000 768.000000
-1283.000000 -6098.000000 770.000000
-1283.000000 -6098.000000 772.000000
-1283.000000 -6098.000000 774.000000
-1283.000000 -6098.000000 776.000000
-1283.000000 -6098.000000 778.000000
-1283.000000 -6098.000000 780.000000
-1283.000000 -6098.000000 782.000000
-1283.000000 -6098.000000 784.000000
-1283.000000 -6098.000000 786.000000
-1283.000000 -6098.000000 788.000000
-1283.000000 -6098.000000 790.000000
-1283.000000 -6098.000000 792.000000
-1283.000000 -6098.000000 794.000000
-1283.000000 -6098.000000 796.000000
-1283.000000 -6098.000000 798.000000
-1283.000000 -6098.000000 800.000000
-1283.000000 -6098.000000 802.000000
-1283.000000 -6098.000000 804.000000
-1283.000000 -6098.000000 806.000000
-1283.000000 -6098.000000 808.000000
-1283.000000 -6098.000000 810.000000
-1283.000000 -6098.000000 812.000000
-1283.000000 -6098.000000 814.000000
-1283.000000 -6098.000000 816.000000
-1283.000000 -6098.000000 818.000000
-1283.000000 -6098.000000 820.000000
-1283.000000 -6098.000000 822.000000
-1283.000000 -6098.000000 824.000000
-1283.000000 -6098.000000 826.000000
-1283.000000 -6098.000000 828.000000
-1283.000000 -6098.000000 830.000000
-1283.000000 -6098.000000 832.000000
-1283.000000 -6098.000000 834.000000
-1283.000000 -6098.000000 836.000000
-1283.000000 -6098.000000 838.000000
-1283.000000 -6098.000000 840.000000
-1283.000000 -6098.000000 842.000000
-1283.000000 -6098.000000 844.000000
-1283.000000 -6098.000000 846.000000
-1283.000000 -6098.000000 848.000000
-1283.000000 -6098.000000 850.000000
-1283.000000 -6098.000000 852.000000
-1283.000000 -6098.000000 854.000000
-1283.000000 -6098.000000 856.000000
-1283.000000 -6098.000000 858.000000
-1283.000000 -6098.000000 860.000000
-1283.000000 -6098.000000 862.000000
-1283.000000 -6098.000000 864.000000
-1283.000000 -6098.000000 866.000000
-1283.000000 -6098.000000 868.000000
-1283.000000 -6098.000000 870.000000
-1283.000000 -6098.000000 872.000000
-1283.000000 -6098.000000 874.000000
-1283.000000 -6098.000000 876.000000
-1283.000000 -6098.000000 878.000000
-1283.000000 -6098.000000 880.000000
-1283.000000 -6098.000000 882.000000
-1283.000000 -6098.000000 884.000000
-1283.000000 -6098.000000 886.000000
-1283.000000 -6098.000000 888.000000
-1283.000000 -6098.000000 890.000000
-1283.000000 -6098.000000 892.000000
-1283.000000 -6098.000000 894.000000
-1283.000000 -6098.000000 896.000000
-1283.000000 -6098.000000 898.000000
-1283.000000 -6098.000000 900.000000
-1283.000000 -6098.000000 902.000000
-1283.000000 -6098.000000 904.000000
-1283.000000 -6098.000000 906.000000
-1283.000000 -6098.000000 908.000000
-1283.000000 -6098.000000 910.000000
-1283.000000 -6098.000000 912.000000
-1283.000000 -6098.000000 914.000000
-1283.000000 -6098.000000 916.000000
-1283.000000 -6098.000000 918.000000
-1283.000000 -6098.000000 920.000000
-1283.000000 -6098.000000 922.000000
-1283.000000 -6098.000000 924.000000
-1283.000000 -6098.000000 926.000000
-1283.000000 -6098.000000 928.000000
-1283.000000 -6098.000000 930.000000
-1283.000000 -6098.000000 932.000000
-1283.000000 -6098.000000 934.000000
-1283.000000 -6098.000000 936.000000
-1283.000000 -6098.000000 938.000000
-1283.000000 -6098.000000 940.000000
-1283.000000 -6098.000000 942.000000
-1283.000000 -6098.000000 944.000000
-1283.000000 -6098.000000 946.000000
-1283.000000 -6098.000000 948.000000
-1283.000000 -6098.000000 950.000000
-1283.000000 -6098.000000 952.000000
-1283.000000 -6098.000000 954.000000
-1283.000000 -6098.000000 956.000000
-1283.000000 -6098.000000 958.000000
-1283.000000 -6098.000000 960.000000
-1283.000000 -6098.000000 962.000000
-1283.000000 -6098.000000 964.000000
-1283.000000 -6098.000000 966.000000
-1283.000000 -6098.000000 968.000000
-1283.000000 -6098.000000 970.000000
-1283.000000 -6098.000000 972.000000
-1283.000000 -6098.000000 974.000000
-1283.000000 -6098.000000 976.000000
-1283.000000 -6098.000000 978.000000
-1283.000000 -6098.000000 980.000000
-1283.000000 -6098.000000 982.000000
-1283.000000 -6098.000000 984.000000
-1283.000000 -6098.000000 986.000000
-1283.000000 -6098.000000 988.000000
-1283.000000 -6098.000000 990.000000
-1283.000000 -6098.000000 992.000000
-1283.000000 -6098.000000 994.000000
-1283.000000 -6098.000000 996.000000
-1283.000000 -6098.000000 998.000000
-1283.000000 -6098.000000 1000.000000
-1283.000000 -6098.000000 1002.000000
-1283.000000 -6098.000000 1004.000000
-686.000000 -6154.000000 146.000000
-687.987680 -6153.813551 146.119860
-689.975359 -6153.627102 146.239720
-691.963039 -6153.440653 146.359580
-693.950719 -6153.254204 146.479440
-695.938398 -6153.067755 146.599300
-697.926078 -6152.881306 146.719160
-699.913757 -6152.694857 146.839021
-701.901437 -6152.508408 146.958881
-703.889117 -6152.321959 147.078741
-705.876796 -6152.135510 147.198601
-707.864476 -6151.949061 147.318461
-709.852156 -6151.762612 147.438321
-711.839835 -6151.576163 147.558181
-713.827515 -6151.389714 147.678041
-715.815195 -6151.203265 147.797901
-717.802874 -6151.016816 147.917761
-719.790554 -6150.830367 148.037621
-721.778233 -6150.643918 148.157481
-723.765913 -6150.457469 148.277341
-725.753593 -6150.271020 148.397202
-727.741272 -6150.084571 148.517062
-729.728952 -6149.898122 148.636922
-731.716632 -6149.711673 148.756782
-733.704311 -6149.525224 148.876642
-735.691991 -6149.338775 148.996502
-737.679670 -6149.152326 149.116362
-739.667350 -6148.965877 149.236222
-741.655030 -6148.779428 149.356082
-743.642709 -6148.592979 149.475942
-745.630389 -6148.406530 149.595802
-747.618069 -6148.220081 149.715662
-749.605748 -6148.033632 149.835523
-751.593428 -6147.847183 149.955383
-753.581108 -6147.660734 150.075243
-755.568787 -6147.474285 150.195103
-757.556467 -6147.287836 150.314963
-759.544146 -6147.101387 150.434823
-761.531826 -6146.914938 150.554683
-763.519506 -6146.728489 150.674543
-765.507185 -6146.542040 150.794403
-767.494865 -6146.355591 150.914263
-769.482545 -6146.169142 151.034123
-771.470224 -6145.982693 151.153983
-773.457904 -6145.796244 151.273843
-775.445584 -6145.609795 151.393704
-777.433263 -6145.423345 151.513564
-779.420943 -6145.236896 151.633424
-781.408622 -6145.050447 151.753284
-783.396302 -6144.863998 151.873144
-785.383982 -6144.677549 151.993004
-787.371661 -6144.491100 152.112864
-789.359341 -6144.304651 152.232724
-791.347021 -6144.118202 152.352584
-793.334700 -6143.931753 152.472444
-795.322380 -6143.745304 152.592304
-797.310060 -6143.558855 152.712164
-799.297739 -6143.372406 152.832024
-801.285419 -6143.185957 152.951885
-803.273098 -6142.999508 153.071745
-805.260778 -6142.813059 153.191605
-807.248458 -6142.626610 153.311465
-809.236137 -6142.440161 153.431325
-811.223817 -6142.253712 153.551185
-813.211497 -6142.067263 153.671045
-815.199176 -6141.880814 153.790905
-817.186856 -6141.694365 153.910765
-819.174535 -6141.507916 154.030625
-821.162215 -6141.321467 154.150485
-823.149895 -6141.135018 154.270345
-825.137574 -6140.948569 154.390205
-827.125254 -6140.762120 154.510066
-829.112934 -6140.575671 154.629926
-831.100613 -6140.389222 154.749786
-833.088293 -6140.202773 154.869646
-835.075973 -6140.016324 154.989506
-837.063652 -6139.829875 155.109366
-839.051332 -6139.643426 155.229226
-841.039011 -6139.456977 155.349086
-843.026691 -6139.270528 155.468946
-845.014371 -6139.084079 155.588806
-847.002050 -6138.897630 155.708666
-848.989730 -6138.711181 155.828526
-850.977410 -6138.524732 155.948387
-852.965089 -6138.338283 156.068247
-854.952769 -6138.151834 156.188107
-856.940449 -6137.965385 156.307967
-858.928128 -6137.778936 156.427827
-860.915808 -6137.592487 156.547687
-862.903487 -6137.406038 156.667547
-864.891167 -6137.219589 156.787407
-866.878847 -6137.033140 156.907267
-868.866526 -6136.846691 157.027127
-870.854206 -6136.660242 157.146987
-872.841886 -6136.473793 157.266847
-874.829565 -6136.287344 157.386707
-876.817245 -6136.100895 157.506568
-878.804925 -6135.914446 157.626428
-880.792604 -6135.727997 157.746288
-882.780284 -6135.541548 157.866148
-884.767963 -6135.355099 157.986008
-886.755643 -6135.168650 158.105868
-888.743323 -6134.982201 158.225728
-890.731002 -6134.795752 158.345588
-892.718682 -6134.609303 158.465448
-894.706362 -6134.422854 158.585308
-896.694041 -6134.236405 158.705168
-898.681721 -6134.049956 158.825028
-900.669400 -6133.863507 158.944888
-902.657080 -6133.677058 159.064749
-904.644760 -6133.490609 159.184609
-906.632439 -6133.304160 159.304469
-908.620119 -6133.117711 159.424329
-910.607799 -6132.931262 159.544189
-912.595478 -6132.744813 159.664049
-914.583158 -6132.558364 159.783909
-916.570838 -6132.371915 159.903769
-918.558517 -6132.185466 160.023629
-920.546197 -6131.999017 160.143489
-922.533876 -6131.812568 160.263349
-924.521556 -6131.626119 160.383209
-926.509236 -6131.439670 160.503069
-928.496915 -6131.253221 160.622930
-930.484595 -6131.066772 160.742790
-932.472275 -6130.880323 160.862650
-934.459954 -6130.693874 160.982510
-936.447634 -6130.507425 161.102370
-938.435314 -6130.320976 161.222230
-940.422993 -6130.134527 161.342090
-942.410673 -6129.948078 161.461950
-944.398352 -6129.761629 161.581810
-946.386032 -6129.575180 161.701670
-948.373712 -6129.388731 161.821530
-950.361391 -6129.202282 161.941390
-952.349071 -6129.015833 162.061251
-954.336751 -6128.829384 162.181111
-956.324430 -6128.642935 162.300971
-958.312110 -6128.456486 162.420831
-960.299790 -6128.270036 162.540691
-962.287469 -6128.083587 162.660551
-964.275149 -6127.897138 162.780411
-966.262828 -6127.710689 162.900271
-968.250508 -6127.524240 163.020131
-970.238188 -6127.337791 163.139991
-972.225867 -6127.151342 163.259851
-974.213547 -6126.964893 163.379711
-976.201227 -6126.778444 163.499571
-978.188906 -6126.591995 163.619432
-980.176586 -6126.405546 163.739292
-982.164265 -6126.219097 163.859152
-984.151945 -6126.032648 163.979012
-986.139625 -6125.846199 164.098872
-988.127304 -6125.659750 164.218732
-990.114984 -6125.473301 164.338592
-992.102664 -6125.286852 164.458452
-994.090343 -6125.100403 164.578312
-996.078023 -6124.913954 164.698172
-998.065703 -6124.727505 164.818032
-1000.053382 -6124.541056 164.937892
-1002.041062 -6124.354607 165.057752
-1004.028741 -6124.168158 165.177613
-1006.016421 -6123.981709 165.297473
-1008.004101 -6123.795260 165.417333
-1009.991780 -6123.608811 165.537193
-1011.979460 -6123.422362 165.657053
-1013.967140 -6123.235913 165.776913
-1015.954819 -6123.049464 165.896773
-1017.942499 -6122.863015 166.016633
-1019.930179 -6122.676566 166.136493
-1021.917858 -6122.490117 166.256353
-1023.905538 -6122.303668 166.376213
-1025.893217 -6122.117219 166.496073
-1027.880897 -6121.930770 166.615933
-1029.868577 -6121.744321 166.735794
-1031.856256 -6121.557872 166.855654
-1033.843936 -6121.371423 166.975514
-1035.831616 -6121.184974 167.095374
-1037.819295 -6120.998525 167.215234
-1039.806975 -6120.812076 167.335094
-1041.794655 -6120.625627 167.454954
-1043.782334 -6120.439178 167.574814
-1045.770014 -6120.252729 167.694674
-1047.757693 -6120.066280 167.814534
-1049.745373 -6119.879831 167.934394
-1051.733053 -6119.693382 168.054254
-1053.720732 -6119.506933 168.174115
-1055.708412 -6119.320484 168.293975
-1057.696092 -6119.134035 168.413835
-1059.683771 -6118.947586 168.533695
-1061.671451 -6118.761137 168.653555
-1063.659130 -6118.574688 168.773415
-1065.646810 -6118.388239 168.893275
-1067.634490 -6118.201790 169.013135
-1069.622169 -6118.015341 169.132995
-1071.609849 -6117.828892 169.252855
-1073.597529 -6117.642443 169.372715
-1075.585208 -6117.455994 169.492575
-1077.572888 -6117.269545 169.612435
-1079.560568 -6117.083096 169.732296
-1081.548247 -6116.896647 169.852156
-1083.535927 -6116.710198 169.972016
-1085.523606 -6116.523749 170.091876
-1087.511286 -6116.337300 170.211736
-1089.498966 -6116.150851 170.331596
-1091.486645 -6115.964402 170.451456
-1093.474325 -6115.777953 170.571316
-1095.462005 -6115.591504 170.691176
-1097.449684 -6115.405055 170.811036
-1099.437364 -6115.218606 170.930896
-1101.425044 -6115.032157 171.050756
-1103.412723 -6114.845708 171.170616
-1105.400403 -6114.659259 171.290477
-1107.388082 -6114.472810 171.410337
-1109.375762 -6114.286361 171.530197
-1111.363442 -6114.099912 171.650057
-1113.351121 -6113.913463 171.769917
-1115.338801 -6113.727014 171.889777
-1117.326481 -6113.540565 172.009637
-1119.314160 -6113.354116 172.129497
-1121.301840 -6113.167667 172.249357
-1123.289520 -6112.981218 172.369217
-1125.277199 -6112.794769 172.489077
-1127.264879 -6112.608320 172.608937
-1129.252558 -6112.421871 172.728797
-1131.240238 -6112.235422 172.848658
-1133.227918 -6112.048973 172.968518
-1135.215597 -6111.862524 173.088378
-1137.203277 -6111.676075 173.208238
-1139.190957 -6111.489626 173.328098
-1141.178636 -6111.303177 173.447958
-1143.166316 -6111.116727 173.567818
-1145.153995 -6110.930278 173.687678
-1147.141675 -6110.743829 173.807538
-1149.129355 -6110.557380 173.927398
-1151.117034 -6110.370931 174.047258
-1153.104714 -6110.184482 174.167118
-1155.092394 -6109.998033 174.286979
-1157.080073 -6109.811584 174.406839
-1159.067753 -6109.625135 174.526699
-1161.055433 -6109.438686 174.646559
-1163.043112 -6109.252237 174.766419
-1165.030792 -6109.065788 174.886279
-1167.018471 -6108.879339 175.006139
-1169.006151 -6108.692890 175.125999
-1170.993831 -6108.506441 175.245859
-1172.981510 -6108.319992 175.365719
-1174.969190 -6108.133543 175.485579
-1176.956870 -6107.947094 175.605439
-1178.944549 -6107.760645 175.725299
-1180.932229 -6107.574196 175.845160
-1182.919909 -6107.387747 175.965020
-1184.907588 -6107.201298 176.084880
-1186.895268 -6107.014849 176.204740
-1188.882947 -6106.828400 176.324600
-1190.870627 -6106.641951 176.444460
-1192.858307 -6106.455502 176.564320
-1194.845986 -6106.269053 176.684180
-1196.833666 -6106.082604 176.804040
-1198.821346 -6105.896155 176.923900
-1200.809025 -6105.709706 177.043760
-1202.796705 -6105.523257 177.163620
-1204.784385 -6105.336808 177.283480
-1206.772064 -6105.150359 177.403341
-1208.759744 -6104.963910 177.523201
-1210.747423 -6104.777461 177.643061
-1212.735103 -6104.591012 177.762921
-1214.722783 -6104.404563 177.882781
-1216.710462 -6104.218114 178.002641
-1218.698142 -6104.031665 178.122501
-1220.685822 -6103.845216 178.242361
-1222.673501 -6103.658767 178.362221
-1224.661181 -6103.472318 178.482081
-1226.648860 -6103.285869 178.601941
-1228.636540 -6103.099420 178.721801
-1230.624220 -6102.912971 178.841661
-1232.611899 -6102.726522 178.961522
-1234.599579 -6102.540073 179.081382
-1236.587259 -6102.353624 179.201242
-1238.574938 -6102.167175 179.321102
-1240.562618 -6101.980726 179.440962
-1242.550298 -6101.794277 179.560822
-1244.537977 -6101.607828 179.680682
-1246.525657 -6101.421379 179.800542
-1248.513336 -6101.234930 179.920402
-1250.501016 -6101.048481 180.040262
-1252.488696 -6100.862032 180.160122
-1254.476375 -6100.675583 180.279982
-1256.464055 -6100.489134 180.399843
-1258.451735 -6100.302685 180.519703
-1260.439414 -6100.116236 180.639563
-1262.427094 -6099.929787 180.759423
-1264.414774 -6099.743338 180.879283
-1266.402453 -6099.556889 180.999143
-1268.390133 -6099.370440 181.119003
-1270.377812 -6099.183991 181.238863
-1272.365492 -6098.997542 181.358723
-1274.353172 -6098.811093 181.478583
-1276.340851 -6098.624644 181.598443
-1278.328531 -6098.438195 181.718303
-1280.316211 -6098.251746 181.838163
-606.000000 -6154.000000 146.000000
-608.000000 -6154.000000 146.000000
-610.000000 -6154.000000 146.000000
-612.000000 -6154.000000 146.000000
-614.000000 -6154.000000 146.000000
-616.000000 -6154.000000 146.000000
-618.000000 -6154.000000 146.000000
-620.000000 -6154.000000 146.000000
-622.000000 -6154.000000 146.000000
-624.000000 -6154.000000 146.000000
-626.000000 -6154.000000 146.000000
-628.000000 -6154.000000 146.000000
-630.000000 -6154.000000 146.000000
-632.000000 -6154.000000 146.000000
-634.000000 -6154.000000 146.000000
-636.000000 -6154.000000 146.000000
-638.000000 -6154.000000 146.000000
-640.000000 -6154.000000 146.000000
-642.000000 -6154.000000 146.000000
-644.000000 -6154.000000 146.000000
-646.000000 -6154.000000 146.000000
-648.000000 -6154.000000 146.000000
-650.000000 -6154.000000 146.000000
-652.000000 -6154.000000 146.000000
-654.000000 -6154.000000 146.000000
-656.000000 -6154.000000 146.000000
-658.000000 -6154.000000 146.000000
-660.000000 -6154.000000 146.000000
-662.000000 -6154.000000 146.000000
-664.000000 -6154.000000 146.000000
-666.000000 -6154.000000 146.000000
-668.000000 -6154.000000 146.000000
-670.000000 -6154.000000 146.000000
-672.000000 -6154.000000 146.000000
-674.000000 -6154.000000 146.000000
-676.000000 -6154.000000 146.000000
-678.000000 -6154.000000 146.000000
-680.000000 -6154.000000 146.000000
-682.000000 -6154.000000 146.000000
-566.000000 -6218.000000 146.000000
-567.059998 -6216.304003 146.000000
-568.119996 -6214.608007 146.000000
-569.179994 -6212.912010 146.000000
-570.239992 -6211.216014 146.000000
-571.299989 -6209.520017 146.000000
-572.359987 -6207.824020 146.000000
-573.419985 -6206.128024 146.000000
-574.479983 -6204.432027 146.000000
-575.539981 -6202.736031 146.000000
-576.599979 -6201.040034 146.000000
-577.659977 -6199.344037 146.000000
-578.719975 -6197.648041 146.000000
-579.779972 -6195.952044 146.000000
-580.839970 -6194.256047 146.000000
-581.899968 -6192.560051 146.000000
-582.959966 -6190.864054 146.000000
-584.019964 -6189.168058 146.000000
-585.079962 -6187.472061 146.000000
-586.139960 -6185.776064 146.000000
-587.199958 -6184.080068 146.000000
-588.259955 -6182.384071 146.000000
-589.319953 -6180.688075 146.000000
-590.379951 -6178.992078 146.000000
-591.439949 -6177.296081 146.000000
-592.499947 -6175.600085 146.000000
-593.559945 -6173.904088 146.000000
-594.619943 -6172.208092 146.000000
-595.679941 -6170.512095 146.000000
-596.739939 -6168.816098 146.000000
-597.799936 -6167.120102 146.000000
-598.859934 -6165.424105 146.000000
-599.919932 -6163.728109 146.000000
-600.979930 -6162.032112 146.000000
-602.039928 -6160.336115 146.000000
-603.099926 -6158.640119 146.000000
-604.159924 -6156.944122 146.000000
-526.000000 -6222.000000 146.000000
-527.990074 -6221.800993 146.000000
-529.980149 -6221.601985 146.000000
-531.970223 -6221.402978 146.000000
-533.960298 -6221.203970 146.000000
-535.950372 -6221.004963 146.000000
-537.940446 -6220.805955 146.000000
-539.930521 -6220.606948 146.000000
-541.920595 -6220.407940 146.000000
-543.910669 -6220.208933 146.000000
-545.900744 -6220.009926 146.000000
-547.890818 -6219.810918 146.000000
-549.880893 -6219.611911 146.000000
-551.870967 -6219.412903 146.000000
-553.861041 -6219.213896 146.000000
-555.851116 -6219.014888 146.000000
-557.841190 -6218.815881 146.000000
-559.831264 -6218.616874 146.000000
-561.821339 -6218.417866 146.000000
-563.811413 -6218.218859 146.000000
-526.000000 -6282.000000 146.000000
-526.000000 -6280.000000 146.000000
-526.000000 -6278.000000 146.000000
-526.000000 -6276.000000 146.000000
-526.000000 -6274.000000 146.000000
-526.000000 -6272.000000 146.000000
-526.000000 -6270.000000 146.000000
-526.000000 -6268.000000 146.000000
-526.000000 -6266.000000 146.000000
-526.000000 -6264.000000 146.000000
-526.000000 -6262.000000 146.000000
-526.000000 -6260.000000 146.000000
-526.000000 -6258.000000 146.000000
-526.000000 -6256.000000 146.000000
-526.000000 -6254.000000 146.000000
-526.000000 -6252.000000 146.000000
-526.000000 -6250.000000 146.000000
-526.000000 -6248.000000 146.000000
-526.000000 -6246.000000 146.000000
-526.000000 -6244.000000 146.000000
-526.000000 -6242.000000 146.000000
-526.000000 -6240.000000 146.000000
-526.000000 -6238.000000 146.000000
-526.000000 -6236.000000 146.000000
-526.000000 -6234.000000 146.000000
-526.000000 -6232.000000 146.000000
-526.000000 -6230.000000 146.000000
-526.000000 -6228.000000 146.000000
-526.000000 -6226.000000 146.000000
-566.000000 -6266.000000 146.000000
-564.143047 -6266.742781 146.000000
-562.286093 -6267.485563 146.000000
-560.429140 -6268.228344 146.000000
-558.572186 -6268.971125 146.000000
-556.715233 -6269.713907 146.000000
-554.858280 -6270.456688 146.000000
-553.001326 -6271.199469 146.000000
-551.144373 -6271.942251 146.000000
-549.287420 -6272.685032 146.000000
-547.430466 -6273.427814 146.000000
-545.573513 -6274.170595 146.000000
-543.716559 -6274.913376 146.000000
-541.859606 -6275.656158 146.000000
-540.002653 -6276.398939 146.000000
-538.145699 -6277.141720 146.000000
-536.288746 -6277.884502 146.000000
-534.431793 -6278.627283 146.000000
-532.574839 -6279.370064 146.000000
-530.717886 -6280.112846 146.000000
-528.860932 -6280.855627 146.000000
-606.000000 -6246.000000 146.000000
-604.211146 -6246.894427 146.000000
-602.422291 -6247.788854 146.000000
-600.633437 -6248.683282 146.000000
-598.844582 -6249.577709 146.000000
-597.055728 -6250.472136 146.000000
-595.266874 -6251.366563 146.000000
-593.478019 -6252.260990 146.000000
-591.689165 -6253.155418 146.000000
-589.900311 -6254.049845 146.000000
-588.111456 -6254.944272 146.000000
-586.322602 -6255.838699 146.000000
-584.533747 -6256.733126 146.000000
-582.744893 -6257.627553 146.000000
-580.956039 -6258.521981 146.000000
-579.167184 -6259.416408 146.000000
-577.378330 -6260.310835 146.000000
-575.589476 -6261.205262 146.000000
-573.800621 -6262.099689 146.000000
-572.011767 -6262.994117 146.000000
-570.222912 -6263.888544 146.000000
-568.434058 -6264.782971 146.000000
-622.000000 -6226.000000 146.000000
-620.750610 -6227.561738 146.000000
-619.501220 -6229.123475 146.000000
-618.251830 -6230.685213 146.000000
-617.002440 -6232.246950 146.000000
-615.753050 -6233.808688 146.000000
-614.503659 -6235.370426 146.000000
-613.254269 -6236.932163 146.000000
-612.004879 -6238.493901 146.000000
-610.755489 -6240.055639 146.000000
-609.506099 -6241.617376 146.000000
-608.256709 -6243.179114 146.000000
-686.000000 -6218.000000 146.000000
-684.015444 -6218.248069 146.000000
-682.030888 -6218.496139 146.000000
-680.046333 -6218.744208 146.000000
-678.061777 -6218.992278 146.000000
-676.077221 -6219.240347 146.000000
-674.092665 -6219.488417 146.000000
-672.108110 -6219.736486 146.000000
-670.123554 -6219.984556 146.000000
-668.138998 -6220.232625 146.000000
-666.154442 -6220.480695 146.000000
-664.169887 -6220.728764 146.000000
-662.185331 -6220.976834 146.000000
-660.200775 -6221.224903 146.000000
-658.216219 -6221.472973 146.000000
-656.231664 -6221.721042 146.000000
-654.247108 -6221.969112 146.000000
-652.262552 -6222.217181 146.000000
-650.277996 -6222.465250 146.000000
-648.293441 -6222.713320 146.000000
-646.308885 -6222.961389 146.000000
-644.324329 -6223.209459 146.000000
-642.339773 -6223.457528 146.000000
-640.355218 -6223.705598 146.000000
-638.370662 -6223.953667 146.000000
-636.386106 -6224.201737 146.000000
-634.401550 -6224.449806 146.000000
-632.416995 -6224.697876 146.000000
-630.432439 -6224.945945 146.000000
-628.447883 -6225.194015 146.000000
-626.463327 -6225.442084 146.000000
-624.478772 -6225.690154 146.000000
-1291.000000 -6218.000000 1020.000000
-1289.861678 -6218.000000 1018.355548
-1288.723356 -6218.000000 1016.711096
-1287.585034 -6218.000000 1015.066644
-1286.446712 -6218.000000 1013.422192
-1285.308389 -6218.000000 1011.777739
-1284.170067 -6218.000000 1010.133287
-1283.031745 -6218.000000 1008.488835
-1281.893423 -6218.000000 1006.844383
-1280.755101 -6218.000000 1005.199931
-1279.616779 -6218.000000 1003.555479
-1278.478457 -6218.000000 1001.911027
-1277.340135 -6218.000000 1000.266575
-1276.201812 -6218.000000 998.622123
-1275.063490 -6218.000000 996.977670
-1273.925168 -6218.000000 995.333218
-1272.786846 -6218.000000 993.688766
-1271.648524 -6218.000000 992.044314
-1270.510202 -6218.000000 990.399862
-1269.371880 -6218.000000 988.755410
-1268.233558 -6218.000000 987.110958
-1267.095236 -6218.000000 985.466506
-1265.956913 -6218.000000 983.822053
-1264.818591 -6218.000000 982.177601
-1263.680269 -6218.000000 980.533149
-1262.541947 -6218.000000 978.888697
-1261.403625 -6218.000000 977.244245
-1260.265303 -6218.000000 975.599793
-1259.126981 -6218.000000 973.955341
-1257.988659 -6218.000000 972.310889
-1256.850337 -6218.000000 970.666437
-1255.712014 -6218.000000 969.021984
-1254.573692 -6218.000000 967.377532
-1253.435370 -6218.000000 965.733080
-1252.297048 -6218.000000 964.088628
-1251.158726 -6218.000000 962.444176
-1250.020404 -6218.000000 960.799724
-1248.882082 -6218.000000 959.155272
-1247.743760 -6218.000000 957.510820
-1246.605437 -6218.000000 955.866368
-1245.467115 -6218.000000 954.221915
-1244.328793 -6218.000000 952.577463
-1243.190471 -6218.000000 950.933011
-1242.052149 -6218.000000 949.288559
-1240.913827 -6218.000000 947.644107
-1239.775505 -6218.000000 945.999655
-1238.637183 -6218.000000 944.355203
-1237.498861 -6218.000000 942.710751
-1236.360538 -6218.000000 941.066298
-1235.222216 -6218.000000 939.421846
-1234.083894 -6218.000000 937.777394
-1232.945572 -6218.000000 936.132942
-1231.807250 -6218.000000 934.488490
-1230.668928 -6218.000000 932.844038
-1229.530606 -6218.000000 931.199586
-1228.392284 -6218.000000 929.555134
-1227.253961 -6218.000000 927.910682
-1226.115639 -6218.000000 926.266229
-1224.977317 -6218.000000 924.621777
-1223.838995 -6218.000000 922.977325
-1222.700673 -6218.000000 921.332873
-1221.562351 -6218.000000 919.688421
-1220.424029 -6218.000000 918.043969
-1219.285707 -6218.000000 916.399517
-1218.147385 -6218.000000 914.755065
-1217.009062 -6218.000000 913.110613
-1215.870740 -6218.000000 911.466160
-1214.732418 -6218.000000 909.821708
-1213.594096 -6218.000000 908.177256
-1212.455774 -6218.000000 906.532804
-1211.317452 -6218.000000 904.888352
-1210.179130 -6218.000000 903.243900
-1209.040808 -6218.000000 901.599448
-1207.902486 -6218.000000 899.954996
-1206.764163 -6218.000000 898.310543
-1205.625841 -6218.000000 896.666091
-1204.487519 -6218.000000 895.021639
-1203.349197 -6218.000000 893.377187
-1202.210875 -6218.000000 891.732735
-1201.072553 -6218.000000 890.088283
-1199.934231 -6218.000000 888.443831
-1198.795909 -6218.000000 886.799379
-1197.657586 -6218.000000 885.154927
-1196.519264 -6218.000000 883.510474
-1195.380942 -6218.000000 881.866022
-1194.242620 -6218.000000 880.221570
-1193.104298 -6218.000000 878.577118
-1191.965976 -6218.000000 876.932666
-1190.827654 -6218.000000 875.288214
-1189.689332 -6218.000000 873.643762
-1188.551010 -6218.000000 871.999310
-1187.412687 -6218.000000 870.354858
-1186.274365 -6218.000000 868.710405
-1185.136043 -6218.000000 867.065953
-1183.997721 -6218.000000 865.421501
-1182.859399 -6218.000000 863.777049
-1181.721077 -6218.000000 862.132597
-1180.582755 -6218.000000 860.488145
-1179.444433 -6218.000000 858.843693
-1178.306110 -6218.000000 857.199241
-1177.167788 -6218.000000 855.554788
-1176.029466 -6218.000000 853.910336
-1174.891144 -6218.000000 852.265884
-1173.752822 -6218.000000 850.621432
-1172.614500 -6218.000000 848.976980
-1171.476178 -6218.000000 847.332528
-1170.337856 -6218.000000 845.688076
-1169.199534 -6218.000000 844.043624
-1168.061211 -6218.000000 842.399172
-1166.922889 -6218.000000 840.754719
-1165.784567 -6218.000000 839.110267
-1164.646245 -6218.000000 837.465815
-1163.507923 -6218.000000 835.821363
-1162.369601 -6218.000000 834.176911
-1161.231279 -6218.000000 832.532459
-1160.092957 -6218.000000 830.888007
-1158.954634 -6218.000000 829.243555
-1157.816312 -6218.000000 827.599103
-1156.677990 -6218.000000 825.954650
-1155.539668 -6218.000000 824.310198
-1154.401346 -6218.000000 822.665746
-1153.263024 -6218.000000 821.021294
-1152.124702 -6218.000000 819.376842
-1150.986380 -6218.000000 817.732390
-1149.848058 -6218.000000 816.087938
-1148.709735 -6218.000000 814.443486
-1147.571413 -6218.000000 812.799033
-1146.433091 -6218.000000 811.154581
-1145.294769 -6218.000000 809.510129
-1144.156447 -6218.000000 807.865677
-1143.018125 -6218.000000 806.221225
-1141.879803 -6218.000000 804.576773
-1140.741481 -6218.000000 802.932321
-1139.603159 -6218.000000 801.287869
-1138.464836 -6218.000000 799.643417
-1137.326514 -6218.000000 797.998964
-1136.188192 -6218.000000 796.354512
-1135.049870 -6218.000000 794.710060
-1133.911548 -6218.000000 793.065608
-1132.773226 -6218.000000 791.421156
-1131.634904 -6218.000000 789.776704
-1130.496582 -6218.000000 788.132252
-1129.358259 -6218.000000 786.487800
-1128.219937 -6218.000000 784.843348
-1127.081615 -6218.000000 783.198895
-1125.943293 -6218.000000 781.554443
-1124.804971 -6218.000000 779.909991
-1123.666649 -6218.000000 778.265539
-1122.528327 -6218.000000 776.621087
-1121.390005 -6218.000000 774.976635
-1120.251683 -6218.000000 773.332183
-1119.113360 -6218.000000 771.687731
-1117.975038 -6218.000000 770.043278
-1116.836716 -6218.000000 768.398826
-1115.698394 -6218.000000 766.754374
-1114.560072 -6218.000000 765.109922
-1113.421750 -6218.000000 763.465470
-1112.283428 -6218.000000 761.821018
-1111.145106 -6218.000000 760.176566
-1110.006783 -6218.000000 758.532114
-1108.868461 -6218.000000 756.887662
-1107.730139 -6218.000000 755.243209
-1106.591817 -6218.000000 753.598757
-1105.453495 -6218.000000 751.954305
-1104.315173 -6218.000000 750.309853
-1103.176851 -6218.000000 748.665401
-1102.038529 -6218.000000 747.020949
-1100.900207 -6218.000000 745.376497
-1099.761884 -6218.000000 743.732045
-1098.623562 -6218.000000 742.087593
-1097.485240 -6218.000000 740.443140
-1096.346918 -6218.000000 738.798688
-1095.208596 -6218.000000 737.154236
-1094.070274 -6218.000000 735.509784
-1092.931952 -6218.000000 733.865332
-1091.793630 -6218.000000 732.220880
-1090.655308 -6218.000000 730.576428
-1089.516985 -6218.000000 728.931976
-1088.378663 -6218.000000 727.287523
-1087.240341 -6218.000000 725.643071
-1086.102019 -6218.000000 723.998619
-1084.963697 -6218.000000 722.354167
-1083.825375 -6218.000000 720.709715
-1082.687053 -6218.000000 719.065263
-1081.548731 -6218.000000 717.420811
-1080.410408 -6218.000000 715.776359
-1079.272086 -6218.000000 714.131907
-1078.133764 -6218.000000 712.487454
-1076.995442 -6218.000000 710.843002
-1075.857120 -6218.000000 709.198550
-1074.718798 -6218.000000 707.554098
-1073.580476 -6218.000000 705.909646
-1072.442154 -6218.000000 704.265194
-1071.303832 -6218.000000 702.620742
-1070.165509 -6218.000000 700.976290
-1069.027187 -6218.000000 699.331838
-1067.888865 -6218.000000 697.687385
-1066.750543 -6218.000000 696.042933
-1065.612221 -6218.000000 694.398481
-1064.473899 -6218.000000 692.754029
-1063.335577 -6218.000000 691.109577
-1062.197255 -6218.000000 689.465125
-1061.058932 -6218.000000 687.820673
-1059.920610 -6218.000000 686.176221
-1058.782288 -6218.000000 684.531768
-1057.643966 -6218.000000 682.887316
-1056.505644 -6218.000000 681.242864
-1055.367322 -6218.000000 679.598412
-1054.229000 -6218.000000 677.953960
-1053.090678 -6218.000000 676.309508
-1051.952356 -6218.000000 674.665056
-1050.814033 -6218.000000 673.020604
-1049.675711 -6218.000000 671.376152
-1048.537389 -6218.000000 669.731699
-1047.399067 -6218.000000 668.087247
-1046.260745 -6218.000000 666.442795
-1045.122423 -6218.000000 664.798343
-1043.984101 -6218.000000 663.153891
-1042.845779 -6218.000000 661.509439
-1041.707457 -6218.000000 659.864987
-1040.569134 -6218.000000 658.220535
-1039.430812 -6218.000000 656.576083
-1038.292490 -6218.000000 654.931630
-1037.154168 -6218.000000 653.287178
-1036.015846 -6218.000000 651.642726
-1034.877524 -6218.000000 649.998274
-1033.739202 -6218.000000 648.353822
-1032.600880 -6218.000000 646.709370
-1031.462557 -6218.000000 645.064918
-1030.324235 -6218.000000 643.420466
-1029.185913 -6218.000000 641.776013
-1028.047591 -6218.000000 640.131561
-1026.909269 -6218.000000 638.487109
-1025.770947 -6218.000000 636.842657
-1024.632625 -6218.000000 635.198205
-1023.494303 -6218.000000 633.553753
-1022.355981 -6218.000000 631.909301
-1021.217658 -6218.000000 630.264849
-1020.079336 -6218.000000 628.620397
-1018.941014 -6218.000000 626.975944
-1017.802692 -6218.000000 625.331492
-1016.664370 -6218.000000 623.687040
-1015.526048 -6218.000000 622.042588
-1014.387726 -6218.000000 620.398136
-1013.249404 -6218.000000 618.753684
-1012.111081 -6218.000000 617.109232
-1010.972759 -6218.000000 615.464780
-1009.834437 -6218.000000 613.820328
-1008.696115 -6218.000000 612.175875
-1007.557793 -6218.000000 610.531423
-1006.419471 -6218.000000 608.886971
-1005.281149 -6218.000000 607.242519
-1004.142827 -6218.000000 605.598067
-1003.004505 -6218.000000 603.953615
-1001.866182 -6218.000000 602.309163
-1000.727860 -6218.000000 600.664711
-999.589538 -6218.000000 599.020258
-998.451216 -6218.000000 597.375806
-997.312894 -6218.000000 595.731354
-996.174572 -6218.000000 594.086902
-995.036250 -6218.000000 592.442450
-993.897928 -6218.000000 590.797998
-992.759606 -6218.000000 589.153546
-991.621283 -6218.000000 587.509094
-990.482961 -6218.000000 585.864642
-989.344639 -6218.000000 584.220189
-988.206317 -6218.000000 582.575737
-987.067995 -6218.000000 580.931285
-985.929673 -6218.000000 579.286833
-984.791351 -6218.000000 577.642381
-983.653029 -6218.000000 575.997929
-982.514706 -6218.000000 574.353477
-981.376384 -6218.000000 572.709025
-980.238062 -6218.000000 571.064573
-979.099740 -6218.000000 569.420120
-977.961418 -6218.000000 567.775668
-976.823096 -6218.000000 566.131216
-975.684774 -6218.000000 564.486764
-974.546452 -6218.000000 562.842312
-973.408130 -6218.000000 561.197860
-972.269807 -6218.000000 559.553408
-971.131485 -6218.000000 557.908956
-969.993163 -6218.000000 556.264504
-968.854841 -6218.000000 554.620051
-967.716519 -6218.000000 552.975599
-966.578197 -6218.000000 551.331147
-965.439875 -6218.000000 549.686695
-964.301553 -6218.000000 548.042243
-963.163230 -6218.000000 546.397791
-962.024908 -6218.000000 544.753339
-960.886586 -6218.000000 543.108887
-959.748264 -6218.000000 541.464434
-958.609942 -6218.000000 539.819982
-957.471620 -6218.000000 538.175530
-956.333298 -6218.000000 536.531078
-955.194976 -6218.000000 534.886626
-954.056654 -6218.000000 533.242174
-952.918331 -6218.000000 531.597722
-951.780009 -6218.000000 529.953270
-950.641687 -6218.000000 528.308818
-949.503365 -6218.000000 526.664365
-948.365043 -6218.000000 525.019913
-947.226721 -6218.000000 523.375461
-946.088399 -6218.000000 521.731009
-944.950077 -6218.000000 520.086557
-943.811755 -6218.000000 518.442105
-942.673432 -6218.000000 516.797653
-941.535110 -6218.000000 515.153201
-940.396788 -6218.000000 513.508749
-939.258466 -6218.000000 511.864296
-938.120144 -6218.000000 510.219844
-936.981822 -6218.000000 508.575392
-935.843500 -6218.000000 506.930940
-934.705178 -6218.000000 505.286488
-933.566855 -6218.000000 503.642036
-932.428533 -6218.000000 501.997584
-931.290211 -6218.000000 500.353132
-930.151889 -6218.000000 498.708679
-929.013567 -6218.000000 497.064227
-927.875245 -6218.000000 495.419775
-926.736923 -6218.000000 493.775323
-925.598601 -6218.000000 492.130871
-924.460279 -6218.000000 490.486419
-923.321956 -6218.000000 488.841967
-922.183634 -6218.000000 487.197515
-921.045312 -6218.000000 485.553063
-919.906990 -6218.000000 483.908610
-918.768668 -6218.000000 482.264158
-917.630346 -6218.000000 480.619706
-916.492024 -6218.000000 478.975254
-915.353702 -6218.000000 477.330802
-914.215379 -6218.000000 475.686350
-913.077057 -6218.000000 474.041898
-911.938735 -6218.000000 472.397446
-910.800413 -6218.000000 470.752994
-909.662091 -6218.000000 469.108541
-908.523769 -6218.000000 467.464089
-907.385447 -6218.000000 465.819637
-906.247125 -6218.000000 464.175185
-905.108803 -6218.000000 462.530733
-903.970480 -6218.000000 460.886281
-902.832158 -6218.000000 459.241829
-901.693836 -6218.000000 457.597377
-900.555514 -6218.000000 455.952924
-899.417192 -6218.000000 454.308472
-898.278870 -6218.000000 452.664020
-897.140548 -6218.000000 451.019568
-896.002226 -6218.000000 449.375116
-894.863903 -6218.000000 447.730664
-893.725581 -6218.000000 446.086212
-892.587259 -6218.000000 444.441760
-891.448937 -6218.000000 442.797308
-890.310615 -6218.000000 441.152855
-889.172293 -6218.000000 439.508403
-888.033971 -6218.000000 437.863951
-886.895649 -6218.000000 436.219499
-885.757327 -6218.000000 434.575047
-884.619004 -6218.000000 432.930595
-883.480682 -6218.000000 431.286143
-882.342360 -6218.000000 429.641691
-881.204038 -6218.000000 427.997239
-880.065716 -6218.000000 426.352786
-878.927394 -6218.000000 424.708334
-877.789072 -6218.000000 423.063882
-876.650750 -6218.000000 421.419430
-875.512428 -6218.000000 419.774978
-874.374105 -6218.000000 418.130526
-873.235783 -6218.000000 416.486074
-872.097461 -6218.000000 414.841622
-870.959139 -6218.000000 413.197169
-869.820817 -6218.000000 411.552717
-868.682495 -6218.000000 409.908265
-867.544173 -6218.000000 408.263813
-866.405851 -6218.000000 406.619361
-865.267528 -6218.000000 404.974909
-864.129206 -6218.000000 403.330457
-862.990884 -6218.000000 401.686005
-861.852562 -6218.000000 400.041553
-860.714240 -6218.000000 398.397100
-859.575918 -6218.000000 396.752648
-858.437596 -6218.000000 395.108196
-857.299274 -6218.000000 393.463744
-856.160952 -6218.000000 391.819292
-855.022629 -6218.000000 390.174840
-853.884307 -6218.000000 388.530388
-852.745985 -6218.000000 386.885936
-851.607663 -6218.000000 385.241484
-850.469341 -6218.000000 383.597031
-849.331019 -6218.000000 381.952579
-848.192697 -6218.000000 380.308127
-847.054375 -6218.000000 378.663675
-845.916052 -6218.000000 377.019223
-844.777730 -6218.000000 375.374771
-843.639408 -6218.000000 373.730319
-842.501086 -6218.000000 372.085867
-841.362764 -6218.000000 370.441414
-840.224442 -6218.000000 368.796962
-839.086120 -6218.000000 367.152510
-837.947798 -6218.000000 365.508058
-836.809476 -6218.000000 363.863606
-835.671153 -6218.000000 362.219154
-834.532831 -6218.000000 360.574702
-833.394509 -6218.000000 358.930250
-832.256187 -6218.000000 357.285798
-831.117865 -6218.000000 355.641345
-829.979543 -6218.000000 353.996893
-828.841221 -6218.000000 352.352441
-827.702899 -6218.000000 350.707989
-826.564577 -6218.000000 349.063537
-825.426254 -6218.000000 347.419085
-824.287932 -6218.000000 345.774633
-823.149610 -6218.000000 344.130181
-822.011288 -6218.000000 342.485729
-820.872966 -6218.000000 340.841276
-819.734644 -6218.000000 339.196824
-818.596322 -6218.000000 337.552372
-817.458000 -6218.000000 335.907920
-816.319677 -6218.000000 334.263468
-815.181355 -6218.000000 332.619016
-814.043033 -6218.000000 330.974564
-812.904711 -6218.000000 329.330112
-811.766389 -6218.000000 327.685659
-810.628067 -6218.000000 326.041207
-809.489745 -6218.000000 324.396755
-808.351423 -6218.000000 322.752303
-807.213101 -6218.000000 321.107851
-806.074778 -6218.000000 319.463399
-804.936456 -6218.000000 317.818947
-803.798134 -6218.000000 316.174495
-802.659812 -6218.000000 314.530043
-801.521490 -6218.000000 312.885590
-800.383168 -6218.000000 311.241138
-799.244846 -6218.000000 309.596686
-798.106524 -6218.000000 307.952234
-796.968201 -6218.000000 306.307782
-795.829879 -6218.000000 304.663330
-794.691557 -6218.000000 303.018878
-793.553235 -6218.000000 301.374426
-792.414913 -6218.000000 299.729974
-791.276591 -6218.000000 298.085521
-790.138269 -6218.000000 296.441069
-788.999947 -6218.000000 294.796617
-787.861625 -6218.000000 293.152165
-786.723302 -6218.000000 291.507713
-785.584980 -6218.000000 289.863261
-784.446658 -6218.000000 288.218809
-783.308336 -6218.000000 286.574357
-782.170014 -6218.000000 284.929904
-781.031692 -6218.000000 283.285452
-779.893370 -6218.000000 281.641000
-778.755048 -6218.000000 279.996548
-777.616726 -6218.000000 278.352096
-776.478403 -6218.000000 276.707644
-775.340081 -6218.000000 275.063192
-774.201759 -6218.000000 273.418740
-773.063437 -6218.000000 271.774288
-771.925115 -6218.000000 270.129835
-770.786793 -6218.000000 268.485383
-769.648471 -6218.000000 266.840931
-768.510149 -6218.000000 265.196479
-767.371826 -6218.000000 263.552027
-766.233504 -6218.000000 261.907575
-765.095182 -6218.000000 260.263123
-763.956860 -6218.000000 258.618671
-762.818538 -6218.000000 256.974219
-761.680216 -6218.000000 255.329766
-760.541894 -6218.000000 253.685314
-759.403572 -6218.000000 252.040862
-758.265250 -6218.000000 250.396410
-757.126927 -6218.000000 248.751958
-755.988605 -6218.000000 247.107506
-754.850283 -6218.000000 245.463054
-753.711961 -6218.000000 243.818602
-752.573639 -6218.000000 242.174149
-751.435317 -6218.000000 240.529697
-750.296995 -6218.000000 238.885245
-749.158673 -6218.000000 237.240793
-748.020350 -6218.000000 235.596341
-746.882028 -6218.000000 233.951889
-745.743706 -6218.000000 232.307437
-744.605384 -6218.000000 230.662985
-743.467062 -6218.000000 229.018533
-742.328740 -6218.000000 227.374080
-741.190418 -6218.000000 225.729628
-740.052096 -6218.000000 224.085176
-738.913774 -6218.000000 222.440724
-737.775451 -6218.000000 220.796272
-736.637129 -6218.000000 219.151820
-735.498807 -6218.000000 217.507368
-734.360485 -6218.000000 215.862916
-733.222163 -6218.000000 214.218464
-732.083841 -6218.000000 212.574011
-730.945519 -6218.000000 210.929559
-729.807197 -6218.000000 209.285107
-728.668875 -6218.000000 207.640655
-727.530552 -6218.000000 205.996203
-726.392230 -6218.000000 204.351751
-725.253908 -6218.000000 202.707299
-724.115586 -6218.000000 201.062847
-722.977264 -6218.000000 199.418394
-721.838942 -6218.000000 197.773942
-720.700620 -6218.000000 196.129490
-719.562298 -6218.000000 194.485038
-718.423975 -6218.000000 192.840586
-717.285653 -6218.000000 191.196134
-716.147331 -6218.000000 189.551682
-715.009009 -6218.000000 187.907230
-713.870687 -6218.000000 186.262778
-712.732365 -6218.000000 184.618325
-711.594043 -6218.000000 182.973873
-710.455721 -6218.000000 181.329421
-709.317399 -6218.000000 179.684969
-708.179076 -6218.000000 178.040517
-707.040754 -6218.000000 176.396065
-705.902432 -6218.000000 174.751613
-704.764110 -6218.000000 173.107161
-703.625788 -6218.000000 171.462709
-702.487466 -6218.000000 169.818256
-701.349144 -6218.000000 168.173804
-700.210822 -6218.000000 166.529352
-699.072499 -6218.000000 164.884900
-697.934177 -6218.000000 163.240448
-696.795855 -6218.000000 161.595996
-695.657533 -6218.000000 159.951544
-694.519211 -6218.000000 158.307092
-693.380889 -6218.000000 156.662639
-692.242567 -6218.000000 155.018187
-691.104245 -6218.000000 153.373735
-689.965923 -6218.000000 151.729283
-688.827600 -6218.000000 150.084831
-687.689278 -6218.000000 148.440379
-1291.000000 -6226.000000 1028.000000
-1291.000000 -6224.585786 1026.585786
-1291.000000 -6223.171573 1025.171573
-1291.000000 -6221.757359 1023.757359
-1291.000000 -6220.343146 1022.343146
-1291.000000 -6246.000000 1036.000000
-1291.000000 -6244.143047 1035.257219
-1291.000000 -6242.286093 1034.514437
-1291.000000 -6240.429140 1033.771656
-1291.000000 -6238.572186 1033.028875
-1291.000000 -6236.715233 1032.286093
-1291.000000 -6234.858280 1031.543312
-1291.000000 -6233.001326 1030.800531
-1291.000000 -6231.144373 1030.057749
-1291.000000 -6229.287420 1029.314968
-1291.000000 -6266.000000 1116.000000
-1291.000000 -6265.514929 1114.059715
-1291.000000 -6265.029857 1112.119430
-1291.000000 -6264.544786 1110.179145
-1291.000000 -6264.059715 1108.238860
-1291.000000 -6263.574644 1106.298575
-1291.000000 -6263.089572 1104.358290
-1291.000000 -6262.604501 1102.418005
-1291.000000 -6262.119430 1100.477720
-1291.000000 -6261.634359 1098.537435
-1291.000000 -6261.149287 1096.597150
-1291.000000 -6260.664216 1094.656865
-1291.000000 -6260.179145 1092.716580
-1291.000000 -6259.694074 1090.776295
-1291.000000 -6259.209002 1088.836010
-1291.000000 -6258.723931 1086.895725
-1291.000000 -6258.238860 1084.955440
-1291.000000 -6257.753789 1083.015155
-1291.000000 -6257.268717 1081.074870
-1291.000000 -6256.783646 1079.134585
-1291.000000 -6256.298575 1077.194300
-1291.000000 -6255.813504 1075.254015
-1291.000000 -6255.328432 1073.313730
-1291.000000 -6254.843361 1071.373445
-1291.000000 -6254.358290 1069.433160
-1291.000000 -6253.873219 1067.492875
-1291.000000 -6253.388147 1065.552590
-1291.000000 -6252.903076 1063.612305
-1291.000000 -6252.418005 1061.672020
-1291.000000 -6251.932934 1059.731735
-1291.000000 -6251.447862 1057.791450
-1291.000000 -6250.962791 1055.851165
-1291.000000 -6250.477720 1053.910880
-1291.000000 -6249.992649 1051.970595
-1291.000000 -6249.507577 1050.030310
-1291.000000 -6249.022506 1048.090025
-1291.000000 -6248.537435 1046.149740
-1291.000000 -6248.052364 1044.209455
-1291.000000 -6247.567292 1042.269170
-1291.000000 -6247.082221 1040.328885
-1291.000000 -6246.597150 1038.388600
-1291.000000 -6346.000000 1116.000000
-1291.000000 -6344.000000 1116.000000
-1291.000000 -6342.000000 1116.000000
-1291.000000 -6340.000000 1116.000000
-1291.000000 -6338.000000 1116.000000
